1.023180 -0.584659 3.329560 -0.433906 0.352242 -0.829248 
1.028800 -0.585710 3.332320 -0.372066 0.360251 -0.855445 
1.149100 -0.596545 3.323240 -0.193818 -0.200748 -0.960278 
1.153370 -0.597068 3.327470 -0.185892 -0.257348 -0.948270 
1.254670 -0.623856 3.434060 -0.087399 -0.052988 -0.994763 
1.264290 -0.626434 3.444590 -0.111532 -0.351187 -0.929639 
0.863707 -0.588858 3.464650 -0.109852 -0.730127 -0.674424 
0.876762 -0.586731 3.445840 -0.215202 -0.690124 -0.690953 
0.876822 -0.586689 3.445630 -0.227165 -0.682668 -0.694521 
0.885185 -0.584998 3.439850 -0.235019 -0.623128 -0.745974 
0.914043 -0.581496 3.409850 -0.560699 -0.117240 -0.819678 
0.920333 -0.580716 3.404300 -0.435231 -0.030105 -0.899815 
0.929608 -0.584252 3.402470 -0.184084 -0.337697 -0.923078 
0.938297 -0.584073 3.397220 -0.170897 -0.375717 -0.910841 
0.975217 -0.583174 3.386820 -0.626391 0.262885 -0.733843 
0.988625 -0.585141 3.378940 -0.574332 0.672706 -0.466486 
0.991760 -0.582937 3.360330 -0.579224 0.439364 -0.686628 
0.997528 -0.582680 3.355910 -0.583678 0.432934 -0.686940 
0.999708 -0.582112 3.350310 -0.605576 0.377925 -0.700322 
0.999287 -0.582146 3.350380 -0.606117 0.372062 -0.702988 
1.005560 -0.581562 3.345530 -0.598847 0.352755 -0.718989 
1.022830 -0.582954 3.351430 -0.534565 -0.291489 -0.793268 
1.021020 -0.580537 3.342250 -0.625608 0.084029 -0.775599 
1.021370 -0.579267 3.334880 -0.615607 0.368258 -0.696717 
1.027080 -0.578351 3.330040 -0.613590 0.374442 -0.695198 
1.032600 -0.577356 3.324290 -0.592266 0.403167 -0.697623 
1.141600 -0.590799 3.324560 -0.539859 0.109038 -0.834664 
1.141260 -0.591237 3.318600 -0.090864 -0.038798 -0.995107 
1.149880 -0.592037 3.328000 -0.172976 -0.200027 -0.964401 
1.261750 -0.620915 3.440440 -0.086055 -0.053148 -0.994872 
1.257850 -0.618406 3.431280 -0.128931 0.124976 -0.983747 
0.795920 -0.578240 3.484430 0.144718 -0.546090 -0.825132 
0.803803 -0.577526 3.474920 0.317864 -0.452862 -0.832994 
0.804739 -0.580984 3.482830 0.391199 -0.520683 -0.758850 
0.811387 -0.581308 3.485750 0.266753 -0.497914 -0.825182 
0.815993 -0.576569 3.457580 -0.395461 -0.547997 -0.737096 
0.852429 -0.582033 3.461080 -0.091422 -0.740355 -0.665970 
0.865132 -0.577701 3.442850 -0.111872 -0.731115 -0.673020 
0.874126 -0.579662 3.447670 -0.092266 -0.741933 -0.664095 
0.875865 -0.579305 3.438030 -0.235019 -0.623128 -0.745974 
0.925526 -0.578651 3.402210 -0.622524 0.182422 -0.761043 
0.932604 -0.578575 3.400090 -0.179925 -0.314807 -0.931946 
0.941345 -0.578159 3.394050 -0.205516 -0.382384 -0.900858 
0.947190 -0.578423 3.393020 -0.120254 -0.605153 -0.786974 
0.947437 -0.576488 3.392070 -0.106249 -0.621959 -0.775808 
0.951250 -0.580210 3.391040 -0.779389 -0.183942 -0.598931 
0.957551 -0.579839 3.387270 -0.257437 -0.269339 -0.927999 
0.956594 -0.581131 3.393350 -0.287701 -0.436896 -0.852262 
0.966857 -0.581570 3.394120 -0.531404 -0.169253 -0.830038 
0.973821 -0.581178 3.388550 -0.423711 -0.188113 -0.886049 
0.990486 -0.577355 3.365020 -0.579324 0.439735 -0.686306 
0.996156 -0.577086 3.360520 -0.578955 0.440218 -0.686309 
1.001850 -0.576580 3.356210 -0.589562 0.401285 -0.700990 
1.006850 -0.578261 3.348430 -0.471145 0.152685 -0.868740 
1.011500 -0.576834 3.349200 -0.505684 0.129112 -0.853003 
1.143390 -0.586474 3.319520 0.501327 0.596270 -0.627003 
1.139200 -0.585847 3.315950 0.265513 0.249828 -0.931176 
1.147890 -0.586731 3.324600 0.348320 -0.011697 -0.937303 
1.166490 -0.586280 3.316400 0.129124 0.367855 -0.920874 
0.802680 -0.576003 3.479590 0.208881 -0.288060 -0.934554 
0.809269 -0.576450 3.483040 0.307725 -0.482776 -0.819898 
0.829095 -0.570151 3.430930 -0.648866 0.432445 -0.626071 
0.833516 -0.571950 3.435020 -0.614046 0.372099 -0.696053 
0.842522 -0.569832 3.436270 -0.042329 -0.578259 -0.814754 
0.849839 -0.572166 3.438910 -0.284712 -0.588155 -0.756976 
0.866938 -0.573627 3.436100 -0.251892 -0.613446 -0.748487 
0.897604 -0.573470 3.414720 0.023887 -0.112707 -0.993341 
0.902944 -0.572859 3.415670 -0.461425 -0.535780 -0.707125 
0.908438 -0.572879 3.416610 -0.448010 -0.540224 -0.712352 
0.922626 -0.573261 3.403960 -0.600267 0.166847 -0.782203 
0.928229 -0.573051 3.400660 -0.557423 0.093734 -0.824920 
0.971010 -0.575828 3.391090 -0.289389 -0.139082 -0.947053 
0.976062 -0.574854 3.384150 -0.746355 -0.242816 -0.619673 
1.017580 -0.574715 3.346180 -0.501346 0.131002 -0.855273 
1.022410 -0.575518 3.347100 -0.452252 0.119462 -0.883854 
1.021840 -0.572725 3.334340 -0.585341 0.422893 -0.691765 
1.135380 -0.580893 3.314990 0.342376 -0.331444 -0.879161 
1.142510 -0.581756 3.322090 0.382084 -0.008935 -0.924084 
1.145590 -0.580403 3.322140 0.126871 -0.083415 -0.988406 
1.148500 -0.581353 3.322700 0.289980 0.336446 -0.895944 
1.150230 -0.580124 3.321420 -0.008947 0.084236 -0.996406 
1.152110 -0.580419 3.319790 0.117883 0.276634 -0.953718 
0.795311 -0.567968 3.462630 -0.522615 -0.441664 -0.729251 
0.802258 -0.566515 3.450220 0.168094 -0.440781 -0.881735 
0.824348 -0.564794 3.438620 -0.568353 0.114021 -0.814846 
0.828870 -0.566508 3.442370 -0.479794 0.068959 -0.874667 
0.835706 -0.566401 3.436020 -0.002490 -0.578463 -0.815705 
0.837906 -0.564133 3.430900 -0.095862 -0.599876 -0.794330 
0.853447 -0.569667 3.443850 -0.175742 -0.497481 -0.849486 
0.859495 -0.569886 3.435010 -0.305290 -0.642695 -0.702667 
0.866259 -0.567261 3.433980 -0.213848 -0.681473 -0.699903 
0.900728 -0.568132 3.412510 -0.051507 -0.268651 -0.961859 
0.905811 -0.568095 3.415320 0.146041 -0.157548 -0.976653 
0.911307 -0.568112 3.416240 -0.445632 -0.541741 -0.712691 
0.928211 -0.571088 3.400750 -0.596518 0.168163 -0.784785 
0.936611 -0.567758 3.396090 -0.639559 0.229921 -0.733553 
0.938330 -0.571310 3.395050 -0.571645 0.089846 -0.815567 
0.945661 -0.571169 3.389740 -0.488351 0.014468 -0.872527 
0.950802 -0.569732 3.389110 -0.431036 -0.115894 -0.894861 
0.957001 -0.569954 3.388110 -0.285378 -0.375358 -0.881853 
0.964597 -0.569917 3.385300 -0.218972 -0.288529 -0.932096 
0.973390 -0.569596 3.387150 -0.908666 0.025974 -0.416714 
0.978150 -0.570168 3.385670 -0.577544 0.543483 -0.609154 
0.984304 -0.571543 3.380370 -0.544443 0.429078 -0.720745 
0.984382 -0.571379 3.376430 -0.371852 0.754423 -0.540900 
0.992605 -0.570061 3.365100 -0.426418 0.774588 -0.467099 
0.998571 -0.571344 3.361450 -0.553811 0.485203 -0.676662 
1.002280 -0.570206 3.363290 -0.635114 0.255404 -0.728971 
1.000880 -0.568502 3.350260 -0.865955 0.399048 -0.301467 
1.006990 -0.569408 3.348140 -0.585592 0.451531 -0.673203 
1.009400 -0.568553 3.350060 -0.492314 0.215055 -0.843432 
1.015480 -0.568325 3.345970 -0.910688 0.270473 -0.312238 
1.018290 -0.567380 3.342050 -0.258146 -0.259314 -0.930654 
1.021040 -0.568602 3.345360 -0.592341 0.418931 -0.688207 
1.022490 -0.568352 3.343520 -0.497705 0.254182 -0.829266 
1.021310 -0.566185 3.334580 -0.606293 0.392338 -0.691723 
1.028180 -0.568571 3.341210 -0.477324 0.242890 -0.844492 
1.032880 -0.569821 3.340760 -0.412458 0.602152 -0.683587 
1.037570 -0.569202 3.338770 -0.593403 -0.166236 -0.787552 
1.137510 -0.576112 3.319380 0.411684 0.412366 -0.812693 
1.189530 -0.578887 3.312370 0.387227 0.749308 -0.537207 
1.260360 -0.606268 3.422630 -0.337260 -0.561881 -0.755345 
0.820451 -0.558966 3.436900 -0.730830 0.071061 -0.678851 
0.833025 -0.560471 3.437360 -0.009558 -0.266817 -0.963700 
0.848914 -0.563481 3.440860 -0.165608 -0.491208 -0.855154 
0.856644 -0.563202 3.437670 -0.180306 -0.571311 -0.800683 
0.869736 -0.563326 3.428260 -0.464231 -0.464239 -0.754302 
0.891847 -0.561966 3.408720 -0.093918 -0.458998 -0.883459 
0.897613 -0.562524 3.411180 -0.164020 -0.139101 -0.976600 
0.903519 -0.563007 3.412990 0.106563 -0.045099 -0.993283 
0.908899 -0.563059 3.413870 0.050692 -0.266767 -0.962427 
0.924491 -0.565922 3.404140 -0.641582 0.089072 -0.761866 
0.942260 -0.565820 3.392570 -0.625576 0.213409 -0.750408 
0.949063 -0.563937 3.387140 -0.541571 0.193797 -0.818012 
0.969813 -0.567802 3.390130 -0.244920 -0.334904 -0.909864 
0.985365 -0.565211 3.380260 -0.251022 0.552176 -0.795041 
0.992563 -0.565674 3.371730 -0.347357 0.774564 -0.528578 
0.991215 -0.566839 3.376060 -0.310568 0.451734 -0.836352 
0.998610 -0.564516 3.367550 -0.412544 0.718270 -0.560264 
1.003920 -0.565203 3.364680 -0.451888 0.673907 -0.584506 
1.001210 -0.564358 3.362020 -0.336151 0.745175 -0.575948 
1.006080 -0.564084 3.362200 -0.632682 0.274774 -0.724025 
1.014510 -0.561687 3.341670 -0.619356 0.147405 -0.771149 
1.021800 -0.562304 3.341580 -0.353155 -0.153374 -0.922907 
1.042280 -0.563538 3.334480 -0.588501 -0.157496 -0.793008 
1.061420 -0.559421 3.296700 -0.901249 0.301043 -0.311647 
1.152270 -0.575342 3.320240 0.015510 0.134262 -0.990824 
1.161650 -0.576353 3.322620 0.044334 0.346085 -0.937155 
1.184080 -0.575538 3.313970 0.281813 0.680006 -0.676885 
1.244370 -0.603742 3.438330 0.009141 0.237735 -0.971287 
1.259870 -0.599709 3.425470 -0.395022 -0.526634 -0.752738 
0.796467 -0.554756 3.444410 -0.746390 -0.173835 -0.642405 
0.826998 -0.554718 3.438130 0.004787 -0.041836 -0.999113 
0.833049 -0.557295 3.439140 0.101742 -0.418236 -0.902622 
0.840188 -0.557888 3.436200 -0.028209 -0.362048 -0.931732 
0.841930 -0.558146 3.426780 -0.078552 -0.042828 -0.995990 
0.853193 -0.557883 3.435890 -0.018286 -0.367413 -0.929878 
0.888612 -0.556930 3.409490 -0.057112 -0.288151 -0.955880 
0.888642 -0.556794 3.409130 -0.162392 -0.331868 -0.929243 
0.894407 -0.557243 3.411120 -0.135188 -0.138769 -0.981054 
0.900535 -0.557276 3.410460 0.161086 0.079628 -0.983723 
0.939771 -0.560175 3.393570 -0.605521 0.195505 -0.771441 
0.945821 -0.558547 3.389760 -0.572145 0.220969 -0.789824 
0.953967 -0.562627 3.387170 -0.419630 -0.058869 -0.905784 
0.959256 -0.560795 3.387490 -0.145530 -0.256362 -0.955562 
0.964746 -0.559498 3.383940 -0.612988 -0.213114 -0.760808 
0.977233 -0.562348 3.384070 -0.111958 0.166101 -0.979733 
0.992406 -0.561389 3.378080 -0.105534 0.789814 -0.604200 
1.013110 -0.562591 3.349860 -0.494875 0.218031 -0.841166 
1.032020 -0.562627 3.340570 -0.480920 0.238906 -0.843587 
1.028010 -0.561542 3.338300 -0.512305 0.268575 -0.815727 
1.036160 -0.562978 3.338580 -0.493460 -0.093903 -0.864685 
1.067700 -0.556704 3.302460 -0.497970 0.443312 -0.745319 
1.068640 -0.557257 3.302280 -0.741771 0.524065 -0.418487 
1.065870 -0.553910 3.273150 -0.808944 0.183714 -0.558443 
1.153790 -0.569600 3.319260 0.421902 0.221787 -0.879096 
1.253750 -0.593649 3.418620 -0.249571 -0.576565 -0.778002 
0.711829 -0.559874 3.545230 0.044494 -0.747173 -0.663139 
0.789258 -0.550676 3.449140 0.054167 -0.570295 -0.819652 
0.814272 -0.550319 3.438340 -0.237917 -0.543554 -0.804950 
0.824476 -0.549697 3.436810 0.086384 0.062942 -0.994272 
0.832602 -0.553254 3.434980 0.063797 -0.050682 -0.996675 
0.836858 -0.552600 3.434410 -0.028275 -0.387977 -0.921235 
0.838486 -0.552402 3.433030 0.015860 -0.157413 -0.987405 
0.838601 -0.552854 3.424990 0.087784 -0.221096 -0.971293 
0.839535 -0.550777 3.423380 -0.019772 -0.342380 -0.939354 
0.849849 -0.552627 3.434270 -0.020174 -0.334490 -0.942183 
0.863244 -0.552706 3.431450 0.306481 -0.410358 -0.858880 
0.865851 -0.552504 3.427030 0.340657 -0.389528 -0.855699 
0.867649 -0.554928 3.417160 -0.432795 -0.416130 -0.799703 
0.885145 -0.551640 3.409460 -0.129885 -0.233955 -0.963532 
0.926968 -0.560344 3.414750 -0.714698 0.091096 -0.693475 
0.932521 -0.556807 3.409510 -0.404288 -0.132659 -0.904960 
0.936142 -0.554975 3.397640 -0.607500 0.062258 -0.791876 
0.951694 -0.556978 3.386970 -0.542063 0.200802 -0.815994 
0.957464 -0.555435 3.384490 -0.315312 -0.057324 -0.947255 
0.962437 -0.555808 3.386470 -0.142137 -0.237950 -0.960821 
0.968381 -0.555262 3.383820 0.092143 -0.514422 -0.852572 
0.981169 -0.556998 3.381800 0.006072 0.419692 -0.907646 
0.986251 -0.559648 3.381900 -0.105150 0.708095 -0.698244 
0.991418 -0.557859 3.385280 -0.204323 0.863392 -0.461309 
0.997890 -0.559711 3.379960 -0.219148 0.857203 -0.466023 
1.007060 -0.559697 3.366340 -0.418531 0.712061 -0.563739 
1.013070 -0.559903 3.361650 -0.436686 0.690569 -0.576559 
1.016910 -0.556499 3.348860 -0.496794 0.224629 -0.838294 
1.019220 -0.555393 3.338140 -0.623708 0.527656 -0.576687 
1.019980 -0.553881 3.337690 -0.615960 0.540047 -0.573535 
1.031880 -0.557433 3.345580 -0.484498 0.636340 -0.600277 
1.029690 -0.553573 3.336690 -0.784486 0.594254 -0.177323 
1.029730 -0.553597 3.336820 -0.785254 0.593710 -0.175737 
1.035730 -0.558061 3.343060 -0.497766 -0.016083 -0.867162 
1.037450 -0.557654 3.340440 -0.484243 0.637402 -0.599356 
1.042110 -0.558781 3.339790 -0.358896 0.730583 -0.580898 
1.046190 -0.557383 3.327670 -0.495614 -0.364695 -0.788267 
1.048160 -0.559290 3.335430 -0.132287 0.499332 -0.856252 
1.061420 -0.557094 3.326030 -0.106330 0.525011 -0.844427 
1.077550 -0.554936 3.299240 -0.723823 0.493980 -0.481730 
1.077550 -0.554936 3.299240 -0.723823 0.493980 -0.481730 
1.086920 -0.555644 3.303930 -0.655668 0.123006 -0.744963 
1.087480 -0.555017 3.288760 -0.819564 0.069066 -0.568809 
1.097690 -0.557153 3.292810 -0.486850 0.641774 -0.592539 
0.717002 -0.557833 3.559820 0.072868 -0.731447 -0.677994 
0.786391 -0.543963 3.448590 -0.191779 -0.572305 -0.797300 
0.796806 -0.546190 3.436680 -0.287611 -0.511091 -0.809979 
0.800392 -0.545167 3.433290 -0.783852 -0.036586 -0.619869 
0.817291 -0.546652 3.433870 -0.204622 -0.331622 -0.920954 
0.835668 -0.547399 3.432190 0.028845 -0.115884 -0.992844 
0.841520 -0.547335 3.432080 0.029644 -0.116426 -0.992757 
0.847304 -0.547317 3.432170 0.029319 -0.115912 -0.992827 
0.891214 -0.552105 3.411370 -0.110194 -0.136844 -0.984444 
0.897292 -0.552105 3.410690 -0.113846 -0.096890 -0.988763 
0.913967 -0.555154 3.419020 0.221370 0.216416 -0.950873 
0.921706 -0.555158 3.415410 -0.513393 0.241687 -0.823416 
0.941984 -0.550926 3.391880 -0.422223 0.086018 -0.902401 
0.949538 -0.550644 3.388410 -0.490733 0.172548 -0.854054 
0.986635 -0.554804 3.384850 0.067752 0.692036 -0.718676 
0.998131 -0.555139 3.384960 -0.006374 0.792405 -0.609962 
1.004840 -0.556856 3.380560 -0.030547 0.802794 -0.595474 
1.007320 -0.554673 3.371060 -0.394395 0.789030 -0.471046 
1.013030 -0.555190 3.367770 -0.404915 0.726328 -0.555420 
1.010680 -0.553796 3.366190 -0.389044 0.733119 -0.557837 
1.015050 -0.554984 3.362470 -0.720337 0.008706 -0.693569 
1.022590 -0.552160 3.349280 -0.537214 0.556137 -0.634124 
1.042310 -0.554252 3.346280 -0.436744 0.679705 -0.589284 
1.042590 -0.550350 3.332130 -0.495969 0.256875 -0.829476 
1.048590 -0.550865 3.326450 -0.820642 -0.135057 -0.555253 
1.054010 -0.551223 3.321390 -0.818705 -0.139474 -0.557018 
1.058910 -0.550848 3.327210 -0.439791 0.109764 -0.891368 
1.082810 -0.550922 3.308810 -0.651890 0.127042 -0.747596 
1.092650 -0.552848 3.299640 -0.655173 0.121948 -0.745571 
1.097610 -0.550316 3.297140 -0.462975 0.649561 -0.603097 
1.100940 -0.551921 3.299160 -0.448346 0.676772 -0.583922 
1.102860 -0.549402 3.289060 0.098273 0.902889 -0.418490 
1.111230 -0.551487 3.289370 -0.081053 0.736095 -0.672008 
1.111230 -0.551487 3.289370 -0.081053 0.736095 -0.672008 
1.111230 -0.551487 3.289370 -0.081053 0.736095 -0.672008 
1.118940 -0.553807 3.287200 0.239168 0.853898 -0.462231 
1.241550 -0.587550 3.430660 -0.588515 -0.416756 -0.692795 
1.251930 -0.588381 3.421240 -0.311496 -0.569922 -0.760368 
0.729362 -0.549195 3.527690 -0.026277 -0.713234 -0.700434 
0.739281 -0.539027 3.460030 0.550445 -0.201666 -0.810149 
0.744693 -0.539487 3.458580 0.593025 -0.153418 -0.790433 
0.779746 -0.542682 3.455020 0.023400 -0.543967 -0.838780 
0.795117 -0.540805 3.444250 -0.184583 -0.572187 -0.799082 
0.803884 -0.537943 3.425860 -0.276536 -0.437900 -0.855436 
0.805953 -0.541723 3.434820 -0.376981 -0.476913 -0.794002 
0.813973 -0.539063 3.427210 0.056266 0.286166 -0.956527 
0.812181 -0.539605 3.430290 -0.479969 -0.408134 -0.776567 
0.818336 -0.541342 3.440090 -0.085613 -0.472773 -0.877016 
0.819219 -0.539679 3.430000 0.221489 0.396638 -0.890854 
0.822284 -0.543638 3.428550 0.340614 0.341038 -0.876171 
0.827454 -0.543722 3.431180 0.383528 0.432370 -0.816065 
0.832727 -0.542501 3.431800 0.193523 0.308619 -0.931291 
0.838628 -0.542391 3.431500 0.039476 -0.073894 -0.996485 
0.844394 -0.542395 3.431670 0.035944 -0.087156 -0.995546 
0.853303 -0.547210 3.431780 0.013829 -0.152788 -0.988162 
0.859529 -0.547405 3.431660 -0.145778 -0.225386 -0.963301 
0.861319 -0.547741 3.430960 -0.152403 -0.250561 -0.956030 
0.867125 -0.546524 3.426820 -0.032978 -0.392083 -0.919338 
0.874348 -0.545979 3.410720 -0.074440 -0.102254 -0.991969 
0.881560 -0.546019 3.409610 -0.216912 -0.194411 -0.956637 
0.887597 -0.546753 3.412530 -0.095221 -0.113391 -0.988977 
0.911453 -0.549881 3.417380 -0.096486 -0.095789 -0.990714 
0.918181 -0.549811 3.415520 -0.152034 -0.188755 -0.970184 
0.923437 -0.550074 3.417470 -0.584150 0.306235 -0.751658 
0.928077 -0.550152 3.418130 -0.613752 0.408864 -0.675380 
0.946205 -0.545269 3.388320 -0.343714 0.014606 -0.938961 
0.953818 -0.549785 3.386670 -0.503580 0.218387 -0.835891 
0.960455 -0.549640 3.383390 -0.262777 0.039558 -0.964045 
0.966089 -0.549756 3.383030 -0.241452 0.057308 -0.968719 
0.975358 -0.551034 3.382370 -0.159463 -0.192381 -0.968277 
0.983275 -0.550386 3.374810 0.043203 -0.065195 -0.996937 
0.991842 -0.552981 3.387930 0.077171 0.687575 -0.722001 
0.997860 -0.550954 3.391700 0.054921 0.802883 -0.593602 
1.004470 -0.552801 3.387790 -0.032557 0.856883 -0.514482 
1.009850 -0.552516 3.387020 -0.111548 0.899649 -0.422124 
1.009850 -0.552516 3.387020 -0.111548 0.899649 -0.422124 
1.015670 -0.548266 3.364090 -0.418771 0.781007 -0.463313 
1.026690 -0.548095 3.353420 -0.622877 0.477201 -0.619923 
1.026690 -0.548095 3.353420 -0.622877 0.477201 -0.619923 
1.059370 -0.546162 3.321510 -0.819813 -0.139389 -0.555407 
1.072840 -0.549219 3.318410 -0.644539 0.136344 -0.752316 
1.078480 -0.546207 3.313300 -0.654269 0.112951 -0.747780 
1.089980 -0.547373 3.311380 -0.469013 0.527648 -0.708248 
1.108900 -0.546699 3.286380 -0.023820 0.921023 -0.388779 
1.117070 -0.548658 3.285780 0.243830 0.850685 -0.465705 
1.240870 -0.582913 3.421620 -0.479667 -0.461739 -0.746135 
1.247050 -0.584082 3.423530 -0.481524 -0.452504 -0.750583 
0.713549 -0.544037 3.535770 -0.354587 -0.595013 -0.721268 
0.723975 -0.543357 3.530660 0.317037 -0.362295 -0.876487 
0.729426 -0.541828 3.520030 -0.034447 -0.721704 -0.691344 
0.734289 -0.546663 3.534930 -0.042126 -0.719228 -0.693496 
0.734493 -0.546751 3.534960 -0.089521 -0.744998 -0.661033 
0.748448 -0.533633 3.454970 0.595712 -0.148131 -0.789420 
0.786397 -0.535642 3.442630 -0.191772 -0.572306 -0.797301 
0.814230 -0.538353 3.437270 -0.348227 -0.540676 -0.765773 
0.821422 -0.535514 3.428760 -0.208613 -0.333398 -0.919416 
0.829870 -0.538058 3.432180 0.119456 0.118454 -0.985748 
0.836310 -0.537095 3.429310 0.237110 0.381701 -0.893355 
0.841480 -0.537485 3.431250 0.039356 -0.074488 -0.996445 
0.850077 -0.541716 3.431350 -0.024976 -0.350220 -0.936334 
0.856873 -0.541525 3.430330 -0.020896 -0.325953 -0.945155 
0.870381 -0.539872 3.407410 -0.104615 -0.437995 -0.892869 
0.877093 -0.540707 3.410960 -0.167709 -0.401503 -0.900371 
0.884111 -0.540984 3.411820 0.076296 -0.054347 -0.995603 
0.907076 -0.543560 3.416260 -0.141597 -0.209908 -0.967413 
0.914696 -0.544319 3.414810 -0.160234 -0.240473 -0.957339 
0.920945 -0.544460 3.414620 -0.179223 -0.351611 -0.918830 
0.936566 -0.546185 3.406900 -0.700990 0.090278 -0.707434 
0.956984 -0.544315 3.385840 -0.399644 0.228844 -0.887646 
0.963573 -0.544183 3.382710 -0.416900 0.419074 -0.806580 
0.968451 -0.544500 3.383110 -0.140683 0.298534 -0.943973 
0.974162 -0.546036 3.378690 0.002766 0.145802 -0.989310 
0.979379 -0.546077 3.379160 -0.020657 0.163359 -0.986350 
0.992449 -0.547956 3.389990 0.338542 0.717466 -0.608796 
1.010690 -0.551077 3.393120 -0.102700 0.891182 -0.441868 
1.011690 -0.548918 3.388790 -0.271897 0.861274 -0.429276 
1.020790 -0.546546 3.375320 -0.517053 0.729863 -0.447163 
1.027690 -0.547550 3.369550 -0.028228 0.920239 -0.390339 
1.030530 -0.544761 3.339480 -0.455111 0.560366 -0.692000 
1.039580 -0.548282 3.351510 -0.797690 0.517086 -0.310344 
1.042420 -0.546307 3.345820 -0.537665 0.663824 -0.519860 
1.036680 -0.543713 3.331610 -0.617389 0.528053 -0.583088 
1.036680 -0.543713 3.331610 -0.617389 0.528053 -0.583088 
1.036680 -0.543713 3.331610 -0.617389 0.528053 -0.583088 
1.046150 -0.543633 3.330270 -0.779552 -0.210747 -0.589817 
1.048480 -0.545411 3.331370 -0.819629 -0.137006 -0.556270 
1.053920 -0.545781 3.326390 -0.535429 0.563097 -0.629474 
1.062490 -0.543889 3.325360 -0.488844 0.637409 -0.595601 
1.068540 -0.544393 3.322520 -0.652169 0.124823 -0.747726 
1.080010 -0.542051 3.306320 -0.228062 0.855531 -0.464816 
1.101330 -0.541828 3.297710 -0.035657 0.919939 -0.390436 
1.108840 -0.543309 3.294000 -0.032140 0.920482 -0.389461 
1.108720 -0.543287 3.293260 -0.023963 0.920722 -0.389483 
1.220720 -0.573273 3.420890 -0.482443 -0.457788 -0.746779 
1.241300 -0.578782 3.426800 -0.354255 -0.406399 -0.842226 
1.235860 -0.576852 3.421620 -0.397776 -0.461453 -0.792992 
0.719778 -0.537978 3.517380 -0.047808 -0.749091 -0.660740 
0.733556 -0.539543 3.529720 -0.071035 -0.710122 -0.700486 
0.737734 -0.525444 3.444330 0.296644 -0.434316 -0.850513 
0.746362 -0.532429 3.458350 0.575789 -0.178538 -0.797867 
0.757587 -0.530427 3.453630 0.021423 -0.547030 -0.836839 
0.789776 -0.532226 3.432780 -0.277776 -0.429084 -0.859493 
0.797990 -0.532221 3.430080 -0.277619 -0.434485 -0.856825 
0.805855 -0.532662 3.430120 -0.276159 -0.438936 -0.855027 
0.812521 -0.534561 3.438920 -0.293220 -0.419587 -0.859052 
0.812521 -0.534561 3.438920 -0.293220 -0.419587 -0.859052 
0.810987 -0.532148 3.435420 0.135761 0.152200 -0.978981 
0.827072 -0.533471 3.432600 0.109185 0.097505 -0.989228 
0.833255 -0.532808 3.430360 0.230754 0.384268 -0.893919 
0.846901 -0.536355 3.428840 0.026871 -0.368223 -0.929349 
0.853384 -0.536340 3.428970 -0.025029 -0.353076 -0.935260 
0.866360 -0.535007 3.411590 -0.183301 -0.443042 -0.877562 
0.872876 -0.534853 3.409490 -0.181737 -0.404163 -0.896451 
0.881108 -0.537460 3.413540 -0.437543 -0.076405 -0.895945 
0.903605 -0.537897 3.414610 -0.116962 -0.691295 -0.713044 
0.910005 -0.537968 3.414220 -0.169099 -0.298184 -0.939410 
0.916876 -0.538122 3.413440 -0.299750 -0.357606 -0.884459 
0.925189 -0.541197 3.414680 -0.612048 -0.045855 -0.789490 
0.932209 -0.541497 3.413150 -0.656832 0.166393 -0.735449 
0.943894 -0.541286 3.395560 -0.695401 0.049306 -0.716928 
0.950390 -0.539895 3.381330 -0.157104 -0.250726 -0.955225 
0.960275 -0.538624 3.386840 -0.255433 0.563997 -0.785278 
0.967135 -0.538945 3.385190 -0.237345 0.673781 -0.699776 
0.965646 -0.539750 3.385490 -0.263190 0.613510 -0.744538 
0.971309 -0.539768 3.384840 0.113278 0.369678 -0.922229 
0.976367 -0.539822 3.386100 0.156631 0.409835 -0.898611 
0.980233 -0.541936 3.385340 0.166780 0.236682 -0.957166 
0.985901 -0.541779 3.384460 0.301250 -0.012432 -0.953464 
1.010200 -0.547854 3.402010 -0.050060 0.906531 -0.419162 
1.010300 -0.547625 3.402550 -0.019039 0.903207 -0.428782 
1.017360 -0.548888 3.398780 0.133708 0.741763 -0.657199 
1.015570 -0.543924 3.374170 0.260033 0.854243 -0.450168 
1.021420 -0.544564 3.369910 -0.513793 0.732955 -0.445863 
1.028100 -0.548883 3.390880 0.403283 0.755535 -0.516266 
1.029950 -0.545458 3.382820 0.249491 0.671170 -0.698058 
1.033120 -0.545994 3.372410 -0.281895 0.905873 -0.316116 
1.038640 -0.545684 3.367540 -0.432410 0.391307 -0.812343 
1.046160 -0.539859 3.334050 -0.701664 0.294090 -0.648983 
1.051740 -0.537929 3.328790 -0.681785 0.342988 -0.646164 
1.059250 -0.540704 3.326380 -0.820687 -0.138094 -0.554440 
1.067880 -0.538886 3.324730 -0.651419 0.191455 -0.734165 
1.074130 -0.541453 3.317570 -0.653581 0.115083 -0.748056 
1.079300 -0.538174 3.310700 -0.060941 0.913651 -0.401905 
1.086590 -0.539431 3.306260 -0.072655 0.915292 -0.396184 
1.093890 -0.540579 3.301690 -0.067275 0.917192 -0.392726 
1.108650 -0.539880 3.300860 -0.024266 0.920363 -0.390312 
1.108700 -0.539866 3.301270 -0.033221 0.920187 -0.390067 
1.116170 -0.541431 3.297100 -0.017245 0.919801 -0.392005 
1.116350 -0.541452 3.298160 -0.026378 0.920280 -0.390370 
1.227770 -0.572175 3.419900 -0.340428 -0.578238 -0.741451 
1.232270 -0.569736 3.416590 -0.401677 -0.532595 -0.744982 
1.235390 -0.570036 3.415490 -0.349769 -0.537931 -0.767002 
0.713467 -0.535353 3.528810 -0.474937 -0.453895 -0.753932 
0.750297 -0.538254 3.521660 -0.098731 -0.755609 -0.647540 
0.746930 -0.522388 3.443300 -0.031746 -0.558339 -0.829005 
0.757468 -0.520118 3.425970 -0.768800 0.124327 -0.627288 
0.763210 -0.524669 3.438270 -0.023497 -0.586042 -0.809940 
0.763891 -0.520766 3.426080 -0.712904 0.226329 -0.663735 
0.774207 -0.523436 3.430320 -0.740942 0.254455 -0.621496 
0.809854 -0.526333 3.430030 0.162478 0.058607 -0.984970 
0.817363 -0.529663 3.427890 -0.217587 -0.330961 -0.918216 
0.824327 -0.528812 3.432780 0.108345 0.097361 -0.989334 
0.855487 -0.529504 3.411950 -0.128220 -0.172409 -0.976645 
0.862544 -0.528978 3.409920 -0.304781 -0.393373 -0.867390 
0.869295 -0.529577 3.410600 -0.175235 -0.188889 -0.966237 
0.906519 -0.532309 3.412620 -0.124213 -0.688974 -0.714063 
0.920456 -0.534894 3.415100 -0.624267 0.033797 -0.780480 
0.929303 -0.533720 3.407070 -0.342156 -0.309292 -0.887281 
0.936631 -0.538653 3.409070 -0.659079 0.163664 -0.734050 
0.936631 -0.538653 3.409070 -0.659079 0.163664 -0.734050 
0.938219 -0.537910 3.407750 -0.308432 -0.343031 -0.887243 
0.965389 -0.535182 3.388900 -0.283710 0.724742 -0.627900 
0.972915 -0.535487 3.386650 -0.327509 0.784987 -0.525865 
0.973300 -0.535609 3.388120 0.253915 0.588090 -0.767905 
0.992500 -0.538219 3.388230 -0.552844 0.701988 -0.448972 
1.029130 -0.544955 3.398620 0.453437 0.710471 -0.538168 
1.042230 -0.544356 3.398480 0.183954 0.594113 -0.783065 
1.047510 -0.541546 3.376660 0.310721 0.819795 -0.481029 
1.049620 -0.542511 3.369650 -0.712390 0.397668 -0.578239 
1.052600 -0.539383 3.351670 -0.712383 0.396753 -0.578876 
1.073540 -0.536537 3.319840 -0.650356 0.214149 -0.728819 
1.084710 -0.534829 3.304980 -0.162880 0.886146 -0.433838 
1.101250 -0.538408 3.305240 -0.024558 0.920352 -0.390320 
1.108640 -0.536466 3.308900 0.011102 0.916303 -0.400331 
1.116180 -0.537968 3.305230 -0.032551 0.920684 -0.388948 
1.155760 -0.550589 3.371990 0.459921 0.627262 -0.628502 
1.229810 -0.563971 3.407350 -0.321265 -0.571873 -0.754818 
1.232370 -0.566289 3.424090 -0.324591 -0.367066 -0.871724 
1.240710 -0.570100 3.420250 -0.354628 -0.542328 -0.761656 
1.246450 -0.568532 3.421610 -0.373003 -0.617243 -0.692734 
0.780348 -0.521638 3.425660 -0.595792 0.229461 -0.769662 
0.787643 -0.522145 3.425920 -0.330384 -0.310865 -0.891184 
0.806064 -0.522441 3.434520 0.291441 0.490308 -0.821377 
0.812674 -0.522223 3.432040 -0.231889 0.015195 -0.972623 
0.813272 -0.523808 3.427150 -0.232429 -0.324993 -0.916709 
0.820469 -0.526747 3.432600 -0.332345 -0.258451 -0.907055 
0.826896 -0.524201 3.433770 0.104859 0.090702 -0.990342 
0.832269 -0.524212 3.434390 -0.463266 -0.374906 -0.803013 
0.852570 -0.524534 3.409210 -0.272384 -0.351734 -0.895595 
0.858708 -0.525253 3.414800 0.151167 -0.497384 -0.854259 
0.866093 -0.524289 3.410070 -0.109684 -0.176153 -0.978233 
0.889889 -0.527958 3.416810 -0.128468 -0.178200 -0.975572 
0.896236 -0.527925 3.415610 -0.146801 -0.210695 -0.966466 
0.899173 -0.530362 3.415140 -0.173831 -0.360146 -0.916558 
0.906241 -0.530360 3.413760 -0.175298 -0.364569 -0.914527 
0.916655 -0.529670 3.414430 -0.622836 0.018479 -0.782134 
0.919481 -0.530556 3.412940 -0.684952 -0.070581 -0.725161 
0.936481 -0.533345 3.404170 -0.382678 -0.072298 -0.921048 
0.947267 -0.533329 3.397380 -0.573439 0.206248 -0.792862 
0.953780 -0.532063 3.395870 -0.236068 0.720041 -0.652543 
0.959882 -0.533325 3.391860 -0.229786 0.715833 -0.659380 
0.967611 -0.533744 3.388720 -0.245863 0.738345 -0.628011 
0.971104 -0.531531 3.391440 -0.218525 0.778899 -0.587846 
0.977264 -0.532708 3.387960 -0.233231 0.774533 -0.587965 
0.978748 -0.533803 3.389300 -0.294867 0.808123 -0.509893 
0.981854 -0.534554 3.388570 -0.339138 0.776263 -0.531414 
0.992223 -0.535611 3.395660 0.026270 0.925777 -0.377156 
1.022060 -0.541685 3.429290 0.081582 0.911250 -0.403693 
1.026810 -0.541452 3.414320 0.007572 0.932001 -0.362377 
1.034040 -0.541959 3.407620 0.355675 0.650644 -0.670938 
1.040940 -0.541347 3.404750 0.186146 0.566594 -0.802696 
1.046930 -0.541964 3.400340 -0.386257 0.692705 -0.609069 
1.042100 -0.539631 3.379900 -0.209709 0.562511 -0.799752 
1.038470 -0.535960 3.362180 -0.226326 0.929940 -0.289808 
1.047500 -0.534119 3.340390 -0.681287 0.331508 -0.652649 
1.053720 -0.530680 3.337890 -0.684144 0.480361 -0.548817 
1.057690 -0.532661 3.341220 -0.666427 0.424528 -0.612903 
1.063150 -0.531593 3.335810 -0.673137 0.412102 -0.614051 
1.070240 -0.531675 3.325720 -0.758692 0.386887 -0.524123 
1.077690 -0.533234 3.323090 -0.195255 0.782722 -0.590950 
1.091710 -0.531959 3.308030 -0.149315 0.890909 -0.428937 
1.100330 -0.533728 3.311110 -0.021642 0.918593 -0.394611 
1.135890 -0.542095 3.334930 0.449271 0.689924 -0.567592 
1.217410 -0.560711 3.421230 -0.382339 -0.547913 -0.744049 
1.227570 -0.559238 3.411590 -0.217269 -0.593619 -0.774862 
1.226560 -0.558430 3.404400 -0.343572 -0.573257 -0.743865 
1.234510 -0.562729 3.412710 -0.422855 -0.572208 -0.702689 
0.750693 -0.514551 3.433750 -0.708185 -0.175353 -0.683904 
0.759723 -0.514514 3.431830 -0.441400 -0.074786 -0.894189 
0.766675 -0.514556 3.428230 -0.483232 -0.037815 -0.874675 
0.774343 -0.514912 3.427550 -0.317777 -0.362468 -0.876148 
0.782188 -0.514986 3.425140 -0.319101 -0.355572 -0.878489 
0.812396 -0.518598 3.437560 -0.035033 0.058272 -0.997686 
0.817440 -0.519578 3.438480 -0.467201 0.229247 -0.853914 
0.823741 -0.519515 3.436720 -0.360586 0.036916 -0.931995 
0.829511 -0.519553 3.434590 -0.460530 -0.378098 -0.803090 
0.841035 -0.518138 3.409830 -0.282615 -0.244543 -0.927538 
0.848177 -0.518191 3.407900 -0.288828 -0.282351 -0.914798 
0.855593 -0.518238 3.405920 -0.282971 -0.298339 -0.911549 
0.902209 -0.524607 3.412300 -0.174799 -0.376952 -0.909589 
0.908842 -0.524726 3.412230 -0.513582 0.007915 -0.858004 
0.926293 -0.528095 3.404440 -0.341839 -0.360002 -0.868070 
0.932081 -0.527992 3.404850 -0.228069 -0.345693 -0.910210 
0.938537 -0.528257 3.404850 -0.078847 -0.375275 -0.923554 
0.943209 -0.528158 3.407840 -0.496625 0.374752 -0.782895 
0.948616 -0.527861 3.406560 -0.531820 0.517858 -0.670068 
0.964085 -0.530753 3.397190 -0.207338 0.791109 -0.575463 
0.974832 -0.529361 3.400390 -0.243124 0.839655 -0.485665 
1.040950 -0.536745 3.407770 -0.064493 0.280151 -0.957787 
1.049480 -0.539402 3.417060 0.279667 0.829336 -0.483724 
1.049890 -0.531732 3.368830 -0.490675 0.408358 -0.769729 
1.053720 -0.532204 3.368150 0.016531 0.839079 -0.543758 
1.076330 -0.530202 3.342350 -0.683082 0.487142 -0.544143 
1.075310 -0.528942 3.316870 -0.749288 0.311297 -0.584519 
1.083350 -0.530510 3.327160 -0.576286 0.479866 -0.661531 
1.086150 -0.529652 3.320220 -0.685869 0.384805 -0.617664 
1.088910 -0.530413 3.322600 -0.591966 0.462284 -0.660204 
1.091690 -0.528358 3.315390 -0.686221 0.384060 -0.617736 
1.098540 -0.529041 3.310040 -0.701924 0.423187 -0.572900 
1.135930 -0.537043 3.341770 -0.114928 0.934464 -0.336999 
0.739461 -0.506156 3.424910 -0.740386 0.344036 -0.577467 
0.739461 -0.506156 3.424910 -0.740386 0.344036 -0.577467 
0.753599 -0.507946 3.431650 -0.329492 -0.317594 -0.889140 
0.761533 -0.507959 3.428790 -0.325775 -0.347394 -0.879311 
0.761602 -0.507937 3.428350 -0.370194 -0.348767 -0.860998 
0.761135 -0.507829 3.429250 -0.339391 -0.353160 -0.871832 
0.791836 -0.511998 3.433190 0.200170 0.307279 -0.930329 
0.801151 -0.512704 3.432270 0.336253 0.513290 -0.789599 
0.807854 -0.517854 3.438510 0.127316 0.129184 -0.983413 
0.813610 -0.518280 3.438900 -0.346686 0.173600 -0.921777 
0.833924 -0.515762 3.431730 -0.409062 -0.482131 -0.774737 
0.892832 -0.522276 3.414440 -0.170146 -0.350712 -0.920897 
0.898660 -0.522506 3.415770 -0.117765 -0.694087 -0.710193 
0.922755 -0.522148 3.403420 -0.358009 -0.412581 -0.837619 
0.927937 -0.522799 3.405360 -0.292239 -0.374051 -0.880161 
0.934606 -0.522808 3.404050 -0.160941 -0.346307 -0.924213 
0.941445 -0.522766 3.402690 -0.018723 -0.274128 -0.961511 
0.947379 -0.522803 3.403000 -0.018630 0.145504 -0.989182 
0.956537 -0.523143 3.396350 -0.190772 0.801485 -0.566769 
0.960495 -0.524882 3.399330 -0.212427 0.778230 -0.590960 
0.965708 -0.525925 3.398540 -0.274880 0.780813 -0.561045 
0.973220 -0.526069 3.391750 -0.226828 0.778414 -0.585338 
0.998339 -0.529213 3.418010 -0.126782 0.892380 -0.433109 
1.036590 -0.535798 3.412170 -0.288663 0.915430 -0.280469 
1.039470 -0.537816 3.427550 0.091414 0.761390 -0.641816 
1.037940 -0.532835 3.408730 -0.545111 0.582756 -0.602701 
1.037940 -0.532835 3.408730 -0.545111 0.582756 -0.602701 
1.047880 -0.535511 3.412040 -0.333204 0.788873 -0.516386 
1.054470 -0.536604 3.416380 0.099763 0.863459 -0.494456 
1.053530 -0.537290 3.412130 0.161988 0.827171 -0.538097 
1.054420 -0.533835 3.414830 -0.619673 0.440307 -0.649719 
1.053240 -0.535081 3.399060 -0.445298 0.689060 -0.571757 
1.051130 -0.531327 3.386240 -0.414121 0.815351 -0.404607 
1.057590 -0.533704 3.383820 -0.443078 0.792696 -0.418705 
1.058620 -0.528701 3.358050 -0.676299 0.401542 -0.617563 
1.058620 -0.528699 3.358030 -0.675696 0.403055 -0.617236 
1.058640 -0.528711 3.358120 -0.673523 0.409574 -0.615318 
1.083100 -0.523826 3.324780 -0.741378 0.448051 -0.499608 
1.088010 -0.524943 3.327560 -0.738096 0.456044 -0.497232 
1.106680 -0.529033 3.327460 -0.551530 0.643756 -0.530465 
1.130150 -0.535336 3.351030 -0.177079 0.915129 -0.362191 
1.136550 -0.535164 3.356210 -0.151836 0.917526 -0.367549 
1.199450 -0.547388 3.410220 -0.512042 -0.463648 -0.723078 
1.211850 -0.548294 3.400320 -0.224375 -0.621945 -0.750226 
1.219510 -0.551758 3.408090 -0.354212 -0.563252 -0.746513 
1.223130 -0.552492 3.410640 -0.440494 -0.300676 -0.845907 
1.223870 -0.553642 3.410120 -0.343803 -0.575581 -0.741961 
0.769115 -0.507869 3.426580 -0.318373 -0.369089 -0.873162 
0.769479 -0.508054 3.426200 -0.315368 -0.366337 -0.875409 
0.769502 -0.508013 3.426130 -0.327469 -0.360829 -0.873250 
0.777102 -0.507929 3.424050 -0.314055 -0.380460 -0.869839 
0.777421 -0.508092 3.423610 -0.310717 -0.374145 -0.873768 
0.785356 -0.508139 3.421060 -0.306958 -0.378096 -0.873396 
0.795742 -0.507407 3.429040 0.396388 0.561760 -0.726156 
0.810357 -0.512918 3.438770 -0.323992 -0.542422 -0.775117 
0.817333 -0.511697 3.433470 -0.402824 -0.090032 -0.910839 
0.822108 -0.512025 3.432670 -0.258519 -0.441406 -0.859261 
0.827149 -0.513296 3.435780 -0.011998 -0.152426 -0.988242 
0.825041 -0.510672 3.425400 -0.172126 -0.274483 -0.946061 
0.829464 -0.512416 3.432010 -0.239658 -0.326844 -0.914186 
0.850886 -0.512366 3.407680 -0.282911 -0.308437 -0.908200 
0.894920 -0.516794 3.414620 -0.188913 -0.304974 -0.933436 
0.901845 -0.516760 3.412850 -0.507837 -0.011066 -0.861382 
0.910023 -0.518464 3.412370 -0.625420 0.025682 -0.779865 
0.918450 -0.516429 3.403440 -0.298977 -0.418208 -0.857738 
0.924720 -0.516925 3.404000 -0.261493 -0.319499 -0.910792 
0.930749 -0.517313 3.403600 -0.188178 -0.299260 -0.935432 
0.929056 -0.516461 3.402510 -0.074172 -0.223621 -0.971850 
0.936861 -0.517768 3.404280 -0.034182 -0.224842 -0.973796 
0.942935 -0.518071 3.405580 0.008352 0.031027 -0.999484 
0.998399 -0.526290 3.429290 0.277260 0.548265 -0.789007 
1.003700 -0.527687 3.429560 -0.119844 0.900368 -0.418300 
1.017710 -0.532610 3.434740 0.458656 0.458781 -0.761022 
1.014210 -0.529951 3.436540 0.245567 0.260499 -0.933722 
1.056990 -0.534498 3.435060 -0.743794 0.601576 -0.291338 
1.059910 -0.531445 3.402350 -0.917433 0.255310 -0.305179 
1.064850 -0.525136 3.377790 -0.367285 0.762685 -0.532366 
1.062470 -0.521992 3.357540 -0.500667 0.346067 -0.793455 
1.071130 -0.525129 3.374600 -0.389177 0.495126 -0.776783 
1.099960 -0.528421 3.355030 -0.590069 0.596150 -0.544448 
0.726441 -0.497634 3.436590 -0.672548 0.075095 -0.736234 
0.740642 -0.501133 3.433850 -0.354554 -0.365852 -0.860490 
0.747601 -0.501458 3.432290 -0.220552 -0.531137 -0.818077 
0.742118 -0.499909 3.426360 -0.359004 -0.255925 -0.897563 
0.748771 -0.501031 3.430410 -0.304519 -0.378804 -0.873943 
0.748895 -0.501096 3.430930 -0.329018 -0.317251 -0.889438 
0.756665 -0.501090 3.427950 -0.313375 -0.359322 -0.879024 
0.764623 -0.501020 3.424620 -0.302978 -0.371785 -0.877485 
0.764614 -0.500475 3.421890 -0.309610 -0.361162 -0.879604 
0.764778 -0.500989 3.423650 -0.299994 -0.401595 -0.865289 
0.772163 -0.501042 3.422580 -0.311680 -0.382136 -0.869959 
0.772516 -0.501294 3.422430 -0.306572 -0.379089 -0.873101 
0.772748 -0.500614 3.419160 -0.231279 -0.343655 -0.910171 
0.780135 -0.501203 3.420210 -0.294964 -0.378362 -0.877405 
0.787357 -0.502660 3.425090 -0.246955 -0.468819 -0.848070 
0.818693 -0.506971 3.433450 -0.260265 -0.455496 -0.851344 
0.825872 -0.506649 3.430770 -0.445285 -0.437664 -0.781135 
0.833053 -0.507930 3.422520 -0.235370 -0.168166 -0.957247 
0.838468 -0.508832 3.424960 -0.413467 -0.450696 -0.791150 
0.891052 -0.509617 3.411050 -0.327560 -0.347697 -0.878528 
0.914569 -0.510702 3.402590 -0.300179 -0.405206 -0.863540 
0.920851 -0.511082 3.402780 -0.219935 -0.321135 -0.921141 
0.925900 -0.511131 3.401740 -0.141507 -0.186246 -0.972259 
0.927133 -0.511568 3.403310 -0.248134 -0.210817 -0.945508 
0.946664 -0.513093 3.402880 0.366352 -0.360122 -0.857962 
1.003730 -0.523985 3.437140 0.586290 0.401542 -0.703582 
1.059740 -0.528177 3.417780 0.332869 0.744259 -0.579031 
1.062920 -0.526921 3.392460 -0.451006 0.490022 -0.745971 
1.078790 -0.524283 3.384210 -0.605422 0.429863 -0.669837 
1.098620 -0.524799 3.368050 -0.625615 0.592258 -0.507775 
1.209840 -0.541336 3.402400 -0.367020 -0.559663 -0.743017 
0.733854 -0.494858 3.433500 -0.232931 -0.501390 -0.833277 
0.735700 -0.493743 3.431350 -0.342094 -0.383462 -0.857863 
0.742314 -0.494791 3.430590 -0.251202 -0.469562 -0.846410 
0.750661 -0.494842 3.428340 -0.259712 -0.465032 -0.846342 
0.758989 -0.494888 3.426070 -0.258862 -0.465934 -0.846106 
0.759840 -0.494194 3.422950 -0.306928 -0.374942 -0.874765 
0.767241 -0.494942 3.423910 -0.255620 -0.463289 -0.848541 
0.774426 -0.495887 3.427070 -0.038131 -0.437383 -0.898467 
0.793736 -0.501697 3.436930 0.289665 0.410131 -0.864804 
0.821787 -0.501582 3.431930 -0.548710 -0.336656 -0.765232 
0.833901 -0.503785 3.428270 -0.472811 -0.363404 -0.802737 
0.901906 -0.507454 3.411700 -0.583342 -0.145409 -0.799105 
0.931361 -0.511302 3.402890 -0.013015 -0.151953 -0.988302 
0.931105 -0.510915 3.402420 0.020840 -0.148393 -0.988709 
0.936457 -0.511464 3.404750 0.139182 -0.081936 -0.986871 
0.941482 -0.511629 3.406660 -0.465612 -0.442039 -0.766686 
0.974677 -0.517026 3.425040 0.155701 0.783801 -0.601176 
1.009360 -0.524870 3.443490 0.496743 0.239550 -0.834184 
1.014210 -0.520953 3.425180 -0.287755 0.092980 -0.953180 
1.065320 -0.521858 3.390440 -0.403241 0.730192 -0.551557 
1.071510 -0.522061 3.385940 -0.476989 0.508867 -0.716614 
1.083270 -0.518937 3.380290 -0.337181 0.786694 -0.517128 
1.083270 -0.518937 3.380290 -0.337181 0.786694 -0.517128 
1.104420 -0.527558 3.426160 0.071351 0.406276 -0.910960 
1.088620 -0.520772 3.381070 -0.415359 0.717537 -0.559123 
1.088620 -0.520772 3.381070 -0.415359 0.717537 -0.559123 
1.110630 -0.527536 3.423640 -0.319230 0.491232 -0.810422 
1.127700 -0.528418 3.405510 0.058778 0.717007 -0.694583 
1.133000 -0.531119 3.404370 0.149551 0.604022 -0.782811 
1.137720 -0.529331 3.404120 0.185113 0.648549 -0.738321 
1.203880 -0.536370 3.395560 -0.260036 -0.579740 -0.772194 
0.712697 -0.487710 3.433980 -0.786624 0.128644 -0.603883 
0.712148 -0.488048 3.434290 -0.786903 0.111736 -0.606877 
0.712148 -0.488048 3.434290 -0.786903 0.111736 -0.606877 
0.719617 -0.489397 3.442400 -0.779874 -0.011768 -0.625826 
0.726336 -0.490100 3.432730 -0.253322 -0.468039 -0.846621 
0.729180 -0.488005 3.431150 -0.255946 -0.465834 -0.847048 
0.774070 -0.495579 3.427110 -0.046152 -0.447958 -0.892862 
0.813532 -0.499083 3.436740 -0.206956 -0.465011 -0.860776 
0.892622 -0.501663 3.409720 -0.462438 -0.446571 -0.765980 
0.910497 -0.505049 3.402120 -0.340708 -0.390157 -0.855392 
0.916913 -0.505483 3.402340 -0.208658 -0.300422 -0.930703 
0.922693 -0.505867 3.401350 -0.135536 -0.167081 -0.976583 
0.928471 -0.505946 3.401470 -0.032755 -0.081477 -0.996137 
0.933123 -0.506193 3.404270 0.014569 -0.036813 -0.999216 
0.939170 -0.506824 3.404750 -0.447700 -0.242602 -0.860644 
0.985341 -0.514114 3.436910 0.172493 0.682060 -0.710662 
0.990630 -0.516986 3.435410 0.537280 0.554979 -0.635081 
0.998961 -0.517962 3.438670 0.674390 0.308439 -0.670868 
1.005360 -0.518204 3.442140 0.471037 0.224806 -0.852987 
1.015990 -0.517217 3.430920 -0.459685 0.137804 -0.877325 
1.077380 -0.518822 3.389520 -0.303384 0.858187 -0.414094 
1.118280 -0.524867 3.413020 -0.179581 0.143638 -0.973200 
1.123940 -0.524757 3.411320 -0.206634 0.083674 -0.974834 
1.133410 -0.525731 3.402610 0.157238 0.584900 -0.795718 
1.183540 -0.525904 3.392480 -0.549915 -0.142932 -0.822899 
1.196150 -0.527195 3.393750 -0.549183 -0.467301 -0.692841 
1.196240 -0.529052 3.387170 -0.465711 -0.460275 -0.755818 
0.694324 -0.484916 3.444810 -0.646040 0.393016 -0.654348 
0.724703 -0.484443 3.432810 -0.290867 -0.558433 -0.776884 
0.737151 -0.488033 3.428050 -0.249848 -0.476162 -0.843117 
0.745746 -0.487752 3.423950 -0.291545 -0.396219 -0.870639 
0.753804 -0.488277 3.424170 -0.258515 -0.454458 -0.852431 
0.753880 -0.488058 3.423180 -0.289591 -0.407212 -0.866207 
0.762038 -0.488348 3.422200 -0.247780 -0.469070 -0.847690 
0.769277 -0.489586 3.427570 -0.232740 -0.493150 -0.838233 
0.808789 -0.493674 3.436610 -0.616098 -0.349660 -0.705805 
0.816853 -0.493415 3.431590 -0.570364 -0.365553 -0.735565 
0.814953 -0.491347 3.422820 -0.492528 -0.312190 -0.812375 
0.825524 -0.494335 3.415540 0.062659 -0.062106 -0.996101 
0.835270 -0.496577 3.426560 -0.453617 -0.320029 -0.831753 
0.843215 -0.496548 3.421930 -0.533652 -0.158611 -0.830697 
0.906277 -0.499407 3.401970 -0.352271 -0.396271 -0.847865 
0.912883 -0.499659 3.401370 -0.225977 -0.333177 -0.915384 
0.919015 -0.500315 3.402610 -0.251894 -0.108395 -0.961665 
0.917781 -0.499130 3.401540 -0.140167 -0.198639 -0.969998 
0.925112 -0.500370 3.401620 -0.037021 -0.054669 -0.997818 
0.930106 -0.501312 3.404410 0.024520 -0.040649 -0.998873 
0.935888 -0.501409 3.404140 0.004105 -0.054113 -0.998526 
0.978176 -0.509610 3.420090 0.576916 0.475731 -0.663964 
0.980217 -0.511106 3.437790 0.159148 0.717297 -0.678349 
0.985297 -0.509680 3.441360 0.391093 0.747714 -0.536629 
1.094900 -0.522497 3.449720 -0.524685 0.247959 -0.814385 
1.116310 -0.521711 3.420390 -0.287998 0.487954 -0.823989 
1.119600 -0.521831 3.419790 -0.093987 0.721946 -0.685537 
1.187250 -0.523361 3.390710 -0.548048 -0.458817 -0.699379 
1.185480 -0.523779 3.389020 -0.354730 -0.564448 -0.745362 
0.694178 -0.477578 3.438950 -0.766980 0.258653 -0.587231 
0.700195 -0.482077 3.441000 -0.604330 0.108693 -0.789285 
0.705870 -0.482021 3.441340 0.122527 -0.093967 -0.988007 
0.714454 -0.482624 3.440180 -0.255454 -0.461878 -0.849360 
0.722775 -0.482677 3.437970 -0.259166 -0.455954 -0.851433 
0.732335 -0.481309 3.426670 -0.258932 -0.454652 -0.852201 
0.740614 -0.481323 3.424240 -0.258924 -0.454651 -0.852203 
0.748813 -0.481378 3.422140 -0.253496 -0.456768 -0.852703 
0.756531 -0.482164 3.422770 -0.216246 -0.519513 -0.826646 
0.807067 -0.488004 3.432980 -0.474170 -0.465861 -0.747085 
0.823053 -0.489401 3.414430 0.085896 -0.001606 -0.996303 
0.830015 -0.489310 3.426980 -0.556448 -0.246378 -0.793513 
0.840271 -0.488774 3.415990 -0.145890 -0.321086 -0.935746 
0.856455 -0.490066 3.396120 -0.478223 -0.355933 -0.802879 
0.895509 -0.494397 3.403960 -0.313874 -0.385901 -0.867504 
0.902151 -0.493708 3.401680 -0.341000 -0.364545 -0.866502 
0.908878 -0.493843 3.400510 -0.230207 -0.321036 -0.918663 
0.914520 -0.493837 3.400960 -0.133007 -0.198756 -0.970981 
0.913728 -0.493309 3.401070 -0.132332 -0.175676 -0.975513 
0.920274 -0.493936 3.401340 -0.047826 -0.055120 -0.997334 
0.919338 -0.493749 3.402670 -0.046586 -0.109416 -0.992904 
0.927169 -0.495645 3.403440 0.021023 0.017772 -0.999621 
0.944824 -0.498984 3.414570 0.568130 0.485313 -0.664605 
0.966984 -0.504120 3.436920 0.508041 0.562515 -0.652282 
1.005390 -0.507243 3.438150 -0.446311 0.649798 -0.615280 
1.095540 -0.520932 3.450580 -0.578108 0.034042 -0.815250 
1.100390 -0.518457 3.436780 -0.387026 0.486271 -0.783423 
1.116430 -0.519675 3.440000 -0.416820 0.487670 -0.767098 
1.125630 -0.517187 3.430700 -0.486757 0.032930 -0.872917 
0.690875 -0.474313 3.434300 -0.686349 0.230808 -0.689676 
0.695154 -0.474352 3.440420 -0.657088 0.292057 -0.694937 
0.704889 -0.475237 3.428280 -0.197628 -0.510741 -0.836712 
0.715340 -0.478171 3.437260 -0.401713 -0.381404 -0.832561 
0.719347 -0.477306 3.431150 -0.278386 -0.569152 -0.773672 
0.718843 -0.474566 3.427110 -0.346176 -0.345093 -0.872395 
0.734252 -0.475994 3.430970 -0.257867 -0.453231 -0.853280 
0.742554 -0.475994 3.428450 -0.257310 -0.453271 -0.853427 
0.797753 -0.484574 3.438190 -0.136240 -0.514476 -0.846613 
0.820501 -0.484540 3.413620 0.081911 -0.024322 -0.996343 
0.825861 -0.484603 3.414380 0.087525 0.000358 -0.996162 
0.832341 -0.485597 3.415140 0.096285 0.029066 -0.994929 
0.845979 -0.486816 3.414300 0.099460 -0.040600 -0.994213 
0.851508 -0.487092 3.415470 -0.605878 0.250537 -0.755078 
0.891334 -0.488072 3.402820 -0.326397 -0.309130 -0.893255 
0.898168 -0.488255 3.401330 -0.299523 -0.361397 -0.882994 
0.904634 -0.488213 3.400680 -0.238466 -0.307199 -0.921283 
0.911145 -0.488517 3.400270 -0.131154 -0.236269 -0.962796 
0.910282 -0.487997 3.400500 -0.129670 -0.243718 -0.961139 
0.916606 -0.488703 3.401750 -0.059941 -0.105182 -0.992645 
0.918602 -0.493126 3.402540 -0.013368 -0.091840 -0.995684 
0.939667 -0.495304 3.403000 0.414359 0.267861 -0.869803 
0.999168 -0.504937 3.461030 -0.464883 0.652620 -0.598306 
0.999227 -0.504913 3.460900 -0.576880 0.675414 -0.459376 
0.998490 -0.505203 3.462770 0.189987 -0.002078 -0.981784 
1.090000 -0.515650 3.452190 -0.545910 -0.066218 -0.835223 
1.095960 -0.512624 3.449730 -0.519850 0.182232 -0.834594 
1.100210 -0.511607 3.437880 -0.390740 0.510807 -0.765767 
1.124420 -0.515713 3.428030 0.007068 0.217009 -0.976144 
1.130980 -0.515419 3.425110 0.245619 0.442063 -0.862700 
1.174570 -0.513067 3.395000 -0.317899 -0.577156 -0.752218 
1.183470 -0.514841 3.385320 -0.268074 -0.648714 -0.712255 
0.706619 -0.471145 3.430890 -0.354838 -0.199839 -0.913320 
0.713398 -0.474208 3.443200 -0.254399 -0.357379 -0.898644 
0.729004 -0.471464 3.434390 -0.489001 -0.468282 -0.735928 
0.798059 -0.480505 3.439630 -0.129858 -0.334260 -0.933492 
0.821471 -0.481097 3.419760 -0.518467 0.178768 -0.836203 
0.828087 -0.478126 3.415160 0.085003 -0.014719 -0.996272 
0.828588 -0.479868 3.414600 0.087705 0.000155 -0.996147 
0.835545 -0.480488 3.413620 0.066084 -0.073296 -0.995118 
0.843075 -0.482329 3.414930 0.103836 0.048605 -0.993406 
0.843221 -0.482991 3.414250 0.106742 -0.054719 -0.992780 
0.848426 -0.482317 3.415480 0.114650 0.044081 -0.992428 
0.855549 -0.483474 3.414630 -0.302556 -0.178069 -0.936350 
0.887142 -0.481981 3.402590 -0.323446 -0.308649 -0.894493 
0.916053 -0.488117 3.401160 -0.030186 -0.106255 -0.993881 
0.920664 -0.488371 3.404170 0.007022 -0.055268 -0.998447 
0.921702 -0.488862 3.403400 0.010134 0.009023 -0.999908 
0.943171 -0.491149 3.424270 0.297826 -0.222066 -0.928432 
0.940055 -0.491156 3.418320 0.557339 0.330122 -0.761835 
0.941062 -0.492222 3.410690 0.302842 0.353465 -0.885070 
1.043280 -0.503401 3.429460 -0.143270 -0.198960 -0.969479 
1.064390 -0.506700 3.437630 0.349965 -0.249395 -0.902955 
1.074110 -0.504863 3.440820 -0.115424 0.126348 -0.985248 
1.084380 -0.510880 3.447250 -0.647105 0.320316 -0.691848 
1.106590 -0.511512 3.437980 -0.661415 0.235824 -0.711981 
1.112960 -0.511097 3.434930 -0.297074 0.133798 -0.945434 
1.119560 -0.510678 3.431890 -0.142471 0.257751 -0.955650 
1.126850 -0.511516 3.430000 0.086152 0.264240 -0.960602 
1.154550 -0.506402 3.393680 -0.138808 -0.608636 -0.781214 
1.181470 -0.511134 3.392950 -0.300709 -0.539370 -0.786546 
0.684465 -0.465291 3.452210 -0.173370 -0.591945 -0.787111 
0.697863 -0.468890 3.440130 -0.134596 -0.210820 -0.968214 
0.726413 -0.469192 3.442130 0.258704 0.423981 -0.867936 
0.732556 -0.469242 3.440940 -0.268416 0.265740 -0.925924 
